# .PCD v0.7 - Point Cloud Data file format
VERSION 0.7
FIELDS x y z intensity
SIZE 4 4 4 4
TYPE F F F F
COUNT 1 1 1 1
WIDTH 1558
HEIGHT 1
VIEWPOINT 0 0 0 1 0 0 0
POINTS 1558
DATA ascii
1.8787003 1.9496615 0.122 0
1.9099876 1.9129399 0.122 0
1.9673885 1.9008012 0.122 0
2.3626089 1.9017833 0.122 0
-2.3488226 1.9641117 0.122 0
1.1141965 1.9713041 0.122 0
2.3605905 1.9696248 0.122 0
-2.355485 2.0406172 0.122 0
1.8784428 2.0188315 0.122 0
2.3365667 2.0208263 0.122 0
1.1267078 2.073771 0.122 0
-2.3580511 2.1160028 0.122 0
2.3530264 2.1080134 0.122 0
-2.3561299 2.1896656 0.122 0
1.1343889 2.174366 0.122 0
1.1206901 2.2413845 0.122 0
-2.3485067 2.2601233 0.122 0
-2.3538013 2.3460262 0.122 0
-1.9816302 2.3434081 0.122 0
-1.9164037 2.3462679 0.122 0
-1.8526425 2.3488479 0.122 0
-1.782378 2.3404081 0.122 0
-1.6657037 2.3495631 0.122 0
0.13296232 2.3424015 0.122 0
0.21494433 2.335484 0.122 0
0.25755715 2.3433859 0.122 0
0.38308442 2.3392382 0.122 0
0.42618632 2.3418186 0.122 0
0.46948469 2.3434722 0.122 0
0.51286769 2.3438268 0.122 0
0.64654905 2.3484485 0.122 0
0.68894804 2.3400993 0.122 0
0.73484284 2.3414505 0.122 0
0.77636921 2.3290355 0.122 0
0.87640029 2.3458052 0.122 0
1.0219865 2.3447003 0.122 0
1.0740142 2.3484166 0.122 0
1.1226979 2.3435133 0.122 0
-2.2837198 2.3552742 0.122 0
-2.2047355 2.3525898 0.122 0
-2.1337452 2.3560827 0.122 0
-2.0606658 2.3547189 0.122 0
-1.7297516 2.3539631 0.122 0
0.071957126 2.3552368 0.122 0
0.17616117 2.3607681 0.122 0
0.32402769 2.3654294 0.122 0
0.56019163 2.3576021 0.122 0
0.60574895 2.3618865 0.122 0
0.83083421 2.3503675 0.122 0
0.93147898 2.3626738 0.122 0
0.98480916 2.3723919 0.122 0
-1.9915001 2.3792028 0.122 0
-2.0150058 2.3630028 0.122 0
-2.0923941 2.3679938 0.122 0
-2.1330285 2.3706748 0.122 0
-2.1723127 2.3472254 0.122 0
-2.2438626 2.3580468 0.122 0
-2.2901402 2.3613315 0.122 0
-2.3336663 2.3601522 0.122 0
-2.3733337 2.3537822 0.122 0
-2.4241238 2.3566523 0.122 0
-1.2910134 2.3933613 0.122 0
-1.3633238 2.3888195 0.122 0
-1.4220742 2.3762107 0.122 0
-1.472495 2.3754632 0.122 0
-1.52279 2.3715658 0.122 0
-1.5733342 2.3654637 0.122 0
-1.629173 2.3693612 0.122 0
-1.669943 2.3666661 0.122 0
-1.7155066 2.3715808 0.122 0
-1.7700183 2.363008 0.122 0
-1.8217758 2.3730075 0.122 0
-1.8669372 2.3691366 0.122 0
-1.9231186 2.3547869 0.122 0
-2.0388353 2.347152 0.122 0
-2.4246705 2.2906404 0.122 0
-1.1248201 2.3961635 0.122 0
-1.1590379 2.3836408 0.122 0
-1.2163526 2.3728588 0.122 0
-1.264652 2.3805203 0.122 0
-1.3233196 2.3738112 0.122 0
-1.3797733 2.3573802 0.122 0
-2.4311323 2.232259 0.122 0
-2.4294639 2.1898234 0.122 0
-2.4308302 2.1315608 0.122 0
-2.4238234 2.0692317 0.122 0
-2.4207301 2.0303662 0.122 0
-2.419189 1.993598 0.122 0
-2.4287899 1.9477861 0.122 0
-2.4146709 1.8886242 0.122 0
-2.4179354 1.8420587 0.122 0
-2.4428234 1.8079289 0.122 0
-2.4105597 1.7451292 0.122 0
-2.4133198 1.6872712 0.122 0
-2.4057341 1.640813 0.122 0
-2.4090419 1.6001203 0.122 0
1.0612561 1.9133563 0.122 0
-2.4178758 1.5484644 0.122 0
1.0589671 1.8489404 0.122 0
-2.4048374 1.5037289 0.122 0
-2.4087558 1.4785798 0.122 0
1.0607398 1.8079977 0.122 0
-2.4088032 1.4395378 0.122 0
1.0652901 1.7684413 0.122 0
-2.3841372 1.3947856 0.122 0
-2.4024706 1.3740537 0.122 0
1.0735015 1.7303581 0.122 0
-2.4048162 1.3370737 0.122 0
1.0528216 1.6639453 0.122 0
-2.4120736 1.2885592 0.122 0
1.070497 1.6095878 0.122 0
-0.079114676 1.4778968 0.122 0
-0.15277588 1.4734272 0.122 0
-2.4096408 1.2391174 0.122 0
2.2856019 1.6833893 0.122 0
1.058012 1.5673758 0.122 0
-2.4001212 1.1893361 0.122 0
2.2822924 1.6228752 0.122 0
1.0703915 1.5315416 0.122 0
1.0546968 1.4897641 0.122 0
-2.4096417 1.1419137 0.122 0
-2.4065502 1.0816319 0.122 0
-2.4161439 1.1059711 0.122 0
2.2867451 1.5640165 0.122 0
-2.3897638 1.0339448 0.122 0
-2.416728 1.0576286 0.122 0
2.2904782 1.5052183 0.122 0
-2.3950291 0.98621708 0.122 0
2.2926416 1.4463825 0.122 0
-2.3832631 0.92753047 0.122 0
2.2959602 1.3878249 0.122 0
-2.3847642 0.86309904 0.122 0
-2.395731 0.89784491 0.122 0
2.2976422 1.3292205 0.122 0
-2.403522 0.82346958 0.122 0
-2.4043367 0.77374488 0.122 0
2.2827268 1.2696679 0.122 0
-2.3965902 0.72519743 0.122 0
2.3140318 1.2128983 0.122 0
-2.3892431 0.67640507 0.122 0
2.2866743 1.1534506 0.122 0
-2.3895926 0.624596 0.122 0
2.2936563 1.0953987 0.122 0
-2.4004831 0.58129519 0.122 0
2.2855778 1.0372219 0.122 0
-2.3845944 0.53318191 0.122 0
-2.4099889 0.55081087 0.122 0
2.299262 0.97879368 0.122 0
-2.3791537 0.4942525 0.122 0
2.2926469 0.92067909 0.122 0
-2.3953245 0.43052679 0.122 0
-2.3890004 0.38990128 0.122 0
2.295774 0.86213696 0.122 0
-2.3945251 0.34220728 0.122 0
2.2975426 0.80346835 0.122 0
-2.3796349 0.28875527 0.122 0
2.3164263 0.74296844 0.122 0
-2.3939557 0.23250751 0.122 0
2.305285 0.68496573 0.122 0
-2.3807473 0.19135714 0.122 0
2.3161597 0.62427258 0.122 0
1.8825667 0.57616943 0.122 0
1.6472681 0.56673145 0.122 0
1.3926003 0.54739028 0.122 0
-2.3788073 0.12443499 0.122 0
2.1913981 0.58292055 0.122 0
1.3730714 0.48500445 0.122 0
-2.3935788 0.060389638 0.122 0
1.3852183 0.43718126 0.122 0
-2.3785474 0.034766763 0.122 0
-2.3693762 -0.014888078 0.122 0
-2.3691981 -0.073509082 0.122 0
-2.376298 -0.12050347 0.122 0
-2.358839 -0.14685638 0.122 0
-1.1472268 -0.089731909 0.122 0
-2.3839941 -0.21362928 0.122 0
-2.3760431 -0.25120342 0.122 0
-2.3750725 -0.32091749 0.122 0
2.3161101 0.13537896 0.122 0
-2.3651869 -0.38450986 0.122 0
2.3226416 0.070074737 0.122 0
-1.1436635 -0.29786417 0.122 0
-2.3700528 -0.44161928 0.122 0
-2.3576827 -0.48112971 0.122 0
2.3307676 0.0033645034 0.122 0
2.3187375 -0.057658225 0.122 0
-2.3631783 -0.57237041 0.122 0
2.3295772 -0.12703186 0.122 0
-2.3537319 -0.65029335 0.122 0
2.3403573 -0.19762537 0.122 0
-2.3540969 -0.7140305 0.122 0
2.3279834 -0.26044253 0.122 0
1.0446409 -0.42192551 0.122 0
0.97106475 -0.4230929 0.122 0
0.91372317 -0.43411911 0.122 0
-2.3552427 -0.78193766 0.122 0
2.3110418 -0.32180706 0.122 0
0.91136909 -0.48708063 0.122 0
-2.3558993 -0.85257351 0.122 0
2.332757 -0.40021229 0.122 0
0.91167092 -0.54363722 0.122 0
-2.3493071 -0.91601139 0.122 0
2.3247316 -0.46707484 0.122 0
0.91481352 -0.60427988 0.122 0
-2.3515453 -0.99642032 0.122 0
0.92033577 -0.66897404 0.122 0
2.3360739 -0.54393244 0.122 0
0.92401695 -0.73421073 0.122 0
2.3525643 -0.62503809 0.122 0
0.92012548 -0.79452336 0.122 0
2.3486524 -0.69755912 0.122 0
0.91314459 -0.85369927 0.122 0
2.3423734 -0.76998973 0.122 0
0.93055469 -0.93949032 0.122 0
2.3436189 -0.84782934 0.122 0
0.93726891 -1.0177475 0.122 0
2.3392701 -0.92397892 0.122 0
0.92569387 -1.0792387 0.122 0
2.3505006 -1.0110804 0.122 0
0.92470264 -1.1546621 0.122 0
0.92446494 -1.2339724 0.122 0
2.353451 -1.0951993 0.122 0
2.3505549 -1.177453 0.122 0
0.92797852 -1.3211374 0.122 0
-0.43107039 -1.4648032 0.122 0
-0.47894835 -1.458475 0.122 0
-0.54400057 -1.4788947 0.122 0
2.3750963 -1.2803469 0.122 0
0.93429244 -1.4157239 0.122 0
-0.55821526 -1.805838 0.122 0
-0.55226552 -2.1917157 0.122 0
-1.1279172 -2.3205922 0.122 0
-1.186903 -2.3160203 0.122 0
-1.2467372 -2.3260751 0.122 0
-0.595649 -2.3033304 0.122 0
-0.65513033 -2.3051279 0.122 0
-0.71525949 -2.2983189 0.122 0
-0.83152068 -2.3300409 0.122 0
-0.89139462 -2.3197107 0.122 0
-0.95049745 -2.3222351 0.122 0
-1.0096471 -2.3234053 0.122 0
-1.0688875 -2.3310983 0.122 0
0.081140995 -2.2829213 0.122 0
0.018381178 -2.2887807 0.122 0
-0.10859686 -2.2901533 0.122 0
-0.1769588 -2.26845 0.122 0
-0.77086931 -2.3441045 0.122 0
0.48460269 -2.2783279 0.122 0
0.41294181 -2.2743375 0.122 0
0.34713733 -2.2815535 0.122 0
0.27519751 -2.2714081 0.122 0
0.21805829 -2.2973251 0.122 0
0.15069997 -2.2947896 0.122 0
-0.040027678 -2.3077264 0.122 0
1.247911 -2.2622321 0.122 0
1.1622819 -2.2605793 0.122 0
1.0774944 -2.2570808 0.122 0
1.0108538 -2.2799487 0.122 0
0.92616606 -2.2711182 0.122 0
0.85605431 -2.284462 0.122 0
0.77767152 -2.2808878 0.122 0
0.70136428 -2.2782302 0.122 0
0.63435376 -2.2912817 0.122 0
0.56104887 -2.2896478 0.122 0
1.5079567 -2.2538404 0.122 0
1.4199622 -2.257741 0.122 0
1.3464091 -2.2789168 0.122 0
0.015113205 -2.3360362 0.12199999 0
0.16937083 -2.3217862 0.12199999 0
0.40018731 -2.3052328 0.12199999 0
0.70767951 -2.2758691 0.12199999 0
0.78642255 -2.2771845 0.12199999 0
0.86366737 -2.268151 0.12199999 0
0.94112319 -2.259089 0.12199999 0
1.0205895 -2.2574885 0.12199999 0
1.0973439 -2.2427692 0.12199999 0
1.1769854 -2.2381077 0.12199999 0
1.2584028 -2.2375243 0.12199999 0
2.0164618 -2.1911719 0.12199999 0
2.1098061 -2.1936572 0.12199999 0
2.2007947 -2.1882305 0.12199999 0
2.2944202 -2.1850033 0.12199999 0
2.3808165 -2.1658657 0.12199999 0
2.4815011 -2.1695201 0.12199999 0
-0.21651182 -2.3235331 0.12199999 0
-0.13891533 -2.3136902 0.12199999 0
-0.062062144 -2.3239772 0.12199999 0
0.092129707 -2.3181703 0.12199999 0
0.24361591 -2.2664151 0.12199999 0
0.32266945 -2.3025305 0.12199999 0
0.47419673 -2.2721395 0.12199999 0
0.55274916 -2.2823691 0.12199999 0
0.62963617 -2.2760341 0.12199999 0
2.5217662 -2.0697424 0.12199999 0
2.5194468 -1.9065598 0.12199999 0
2.5056098 -1.7346765 0.12199999 0
-0.26214847 -1.8560903 0.12199999 0
2.5075567 -1.5954447 0.12199999 0
2.5000844 -1.4497826 0.12199999 0
2.4874074 -1.3043158 0.12199999 0
1.0651393 -1.3447381 0.12199999 0
2.4766543 -1.1686074 0.12199999 0
2.4683156 -1.0424478 0.12199999 0
1.0482905 -1.0918759 0.12199999 0
2.4669504 -0.93060732 0.12199999 0
2.4514394 -0.80677682 0.12199999 0
1.0306937 -0.86302644 0.12199999 0
1.0180131 -0.67008597 0.12199999 0
1.0109179 -0.50953835 0.12199999 0
1.1171075 -0.38957986 0.12199999 0
1.0150137 -0.39057085 0.12199999 0
1.0599589 -0.37669322 0.12199999 0
1.417644 0.47410306 0.12199999 0
1.4186158 0.52881497 0.12199999 0
1.4229609 0.57790035 0.12199999 0
1.6078465 0.6039691 0.12199999 0
1.894595 0.62300527 0.12199999 0
1.957225 0.62838584 0.12199999 0
2.014987 0.63929594 0.12199999 0
2.0896013 0.64023799 0.12199999 0
2.1555982 0.64949489 0.12199999 0
2.2407444 0.64850366 0.12199999 0
2.3073719 0.66193897 0.12199999 0
1.4654937 0.61230838 0.12199999 0
1.5448172 0.61148822 0.12199999 0
1.6395117 0.62687278 0.12199999 0
1.7082171 0.61822683 0.12199999 0
1.7586799 0.62738669 0.12199999 0
1.8120784 0.63566667 0.12199999 0
2.3682699 0.68080068 0.12199999 0
2.3662083 0.73735654 0.12199999 0
2.3649271 0.79229379 0.12199999 0
-2.3680758 0.92951131 0.12199999 0
-2.3661025 0.9813841 0.12199999 0
-2.3568196 1.0355997 0.12199999 0
-2.3712442 1.0786086 0.12199999 0
-2.3642788 1.1301128 0.12199999 0
-2.3847857 1.1701273 0.12199999 0
-2.367048 1.2242125 0.12199999 0
-2.3742762 1.2684216 0.12199999 0
1.0796845 1.5450746 0.12199999 0
-2.3822491 1.3121125 0.12199999 0
1.0863391 1.5997514 0.12199999 0
-2.3765132 1.3597676 0.12199999 0
1.0852523 1.6448951 0.12199999 0
-2.3987963 1.4439869 0.12199999 0
-2.3748381 1.4055562 0.12199999 0
-0.86695957 1.561919 0.12199999 0
-0.79215938 1.5680219 0.12199999 0
1.0680096 1.6947724 0.12199999 0
-2.4017856 1.4881021 0.12199999 0
-1.024112 1.5617917 0.12199999 0
-0.98489892 1.5597332 0.12199999 0
-0.91699719 1.5644573 0.12199999 0
-0.82023942 1.5701039 0.12199999 0
1.0722206 1.7454408 0.12199999 0
-2.4008245 1.5328479 0.12199999 0
1.0746526 1.7954636 0.12199999 0
-2.3998337 1.5772079 0.12199999 0
1.0680047 1.8368824 0.12199999 0
-2.3915768 1.622611 0.12199999 0
1.0600909 1.8868954 0.12199999 0
-2.4042656 1.6637502 0.12199999 0
1.0634587 1.9432144 0.12199999 0
-2.4141257 1.705525 0.12199999 0
1.0819422 1.9788557 0.12199999 0
-2.4117887 1.7491148 0.12199999 0
-2.3886981 1.7949338 0.12199999 0
-2.4200532 1.8340975 0.12199999 0
-2.4227879 1.8766818 0.12199999 0
-2.4169736 1.9198196 0.12199999 0
-2.405659 1.9629319 0.12199999 0
-2.4335892 2.0042555 0.12199999 0
1.0453342 2.3171763 0.12199999 0
-2.4174511 2.0683136 0.12199999 0
1.047557 2.3465087 0.12199999 0
-2.4447098 2.1325197 0.12199999 0
1.0341668 2.4013019 0.12199999 0
-2.439513 2.1752312 0.12199999 0
1.0229788 2.4372842 0.12199999 0
-2.4371498 2.217968 0.12199999 0
-2.0644391 2.270649 0.12199999 0
-1.8526338 2.2845845 0.12199999 0
-1.6740805 2.2952893 0.12199999 0
-1.5259182 2.3041065 0.12199999 0
-1.3973939 2.3109179 0.12199999 0
-1.2842489 2.3159993 0.12199999 0
-1.1980295 2.3224285 0.12199999 0
-1.1217818 2.3280141 0.12199999 0
-1.0371486 2.329011 0.12199999 0
-0.99095953 2.3367105 0.12199999 0
-0.92358661 2.3371315 0.12199999 0
-2.3381679 2.2537887 0.12199999 0
-2.3304157 -1.3339052 0.122 0
-2.3353891 -1.4147396 0.122 0
-2.3705072 1.960007 0.122 0
-2.4018822 1.9124115 0.122 0
-2.3797917 1.8440437 0.122 0
-2.3996415 1.7924726 0.122 0
-2.376255 1.7261155 0.122 0
-2.3941762 1.6746418 0.122 0
-2.3856323 1.6151183 0.122 0
-2.3800066 1.5573456 0.122 0
-2.3778234 1.5012493 0.122 0
-2.3989062 1.451468 0.122 0
-2.3754032 1.3912373 0.122 0
-2.3668373 1.3354268 0.122 0
-2.3804467 1.2845562 0.122 0
-2.3769712 1.2305962 0.122 0
-2.3796725 1.1780396 0.122 0
-2.3869064 1.1262939 0.122 0
-2.3689811 1.071543 0.122 0
-2.3739994 1.0199757 0.122 0
-2.3809388 0.96857738 0.122 0
-2.3560071 0.91497374 0.122 0
-2.3676903 0.86415106 0.122 0
-2.3706965 0.81273556 0.122 0
-2.3397675 0.76080489 0.122 0
-2.3733337 0.70973879 0.122 0
-2.3687732 0.65830183 0.122 0
-2.3694575 0.60678285 0.122 0
-2.3732536 0.55499488 0.122 0
-2.3197021 -1.2513056 0.122 0
-2.2717378 -1.4455788 0.122 0
-2.170176 -1.4450512 0.122 0
-2.0806255 -2.3661921 0.122 0
-2.0624888 -1.4358914 0.122 0
-1.9702502 -1.4357469 0.122 0
-1.9903781 -2.3689034 0.122 0
-1.8953514 -2.3625336 0.122 0
-1.8854706 -1.4388766 0.122 0
-1.8112801 -2.3666713 0.122 0
-1.7911798 -1.4304341 0.122 0
-1.7268093 -2.367455 0.122 0
-1.7121946 -1.4327953 0.122 0
-1.6383682 -1.4374629 0.122 0
-1.6378615 -2.35901 0.122 0
-1.5629344 -2.3672326 0.122 0
-1.5515188 -1.426496 0.122 0
-1.4849633 -1.4332919 0.122 0
-1.4815052 -1.5064008 0.122 0
-1.4741806 -1.5778708 0.122 0
-1.4862667 -2.3705778 0.122 0
-1.3963439 -2.350666 0.122 0
-1.3331548 -2.3697672 0.122 0
-1.2588087 -2.3688812 0.122 0
-1.1810519 -2.3592689 0.122 0
-1.2243794 0.58810979 0.122 0
-1.1081622 -2.3551495 0.122 0
-1.1383322 0.56433952 0.122 0
-1.1318684 0.53482258 0.122 0
-1.1419581 0.48804399 0.122 0
-1.1296253 0.4288289 0.122 0
-1.1382372 0.38089675 0.122 0
-1.1458943 0.33210242 0.122 0
-1.1414461 0.23737615 0.122 0
-1.1302677 0.19207484 0.122 0
-1.1292253 0.14302897 0.122 0
-1.1361859 0.09021771 0.122 0
-1.1317099 0.04056251 0.122 0
-1.1273483 -0.0099566579 0.122 0
-1.1281617 -0.063850641 0.122 0
-1.1297081 -0.11933863 0.122 0
-1.1404513 -0.16222954 0.122 0
-1.1200461 -0.20871401 0.122 0
-1.1142595 -0.2639764 0.122 0
-1.1190522 -0.30686051 0.122 0
-1.1224511 -0.34995508 0.122 0
-1.121581 -0.39133006 0.122 0
-1.1151884 0.29237631 0.122 0
-1.0358452 -2.3492167 0.122 0
-1.0270252 1.4274151 0.122 0
-0.96081889 1.4304644 0.122 0
-0.90012139 1.4338962 0.122 0
-0.80883336 1.4197614 0.122 0
-0.76459068 1.4270066 0.122 0
-0.71502352 1.4298911 0.122 0
-0.67242527 1.4350803 0.122 0
-0.61793965 1.4317672 0.122 0
-0.53647739 -1.4889904 0.122 0
-0.5755502 1.4339745 0.122 0
-0.49725419 -1.5072113 0.122 0
-0.54117131 2.3658581 0.122 0
-0.50124341 1.441031 0.122 0
-0.51591164 1.4235888 0.122 0
-0.43926865 -1.4844754 0.122 0
-0.4957372 2.3597727 0.122 0
-0.44977438 1.4327295 0.122 0
-0.40475604 -1.5114655 0.122 0
-0.3988933 -1.6081636 0.122 0
-0.39765018 -1.7247686 0.122 0
-0.39913207 -1.8593311 0.122 0
-0.39269096 -1.9848466 0.122 0
-0.38609722 -2.1226234 0.122 0
-0.39197382 -2.314508 0.122 0
-0.46207529 2.3704972 0.122 0
-0.41960719 1.4378012 0.122 0
-0.33895481 -2.3316526 0.122 0
-0.4048301 2.3738678 0.122 0
-0.37375021 1.443028 0.122 0
-0.28238168 -2.3362467 0.122 0
-0.34222704 2.3651235 0.122 0
-0.32161051 1.4412549 0.122 0
-0.22133639 -2.3221905 0.122 0
-0.29445612 2.3454895 0.122 0
-0.27316967 1.4394412 0.122 0
-0.1648946 -2.3228347 0.122 0
-0.25134507 2.3673258 0.122 0
-0.2217733 1.4452353 0.122 0
-0.11244085 -2.339278 0.122 0
-0.20049194 2.3725705 0.122 0
-0.16664109 1.4438696 0.122 0
-0.053363264 -2.3242726 0.122 0
-0.14588268 2.3670061 0.122 0
-0.12135354 1.4486554 0.122 0
0.0013734177 -2.3273973 0.122 0
-0.092263624 2.3601851 0.122 0
-0.057752777 1.4427226 0.122 0
-0.076432474 1.4383974 0.122 0
0.057039827 -2.3235583 0.122 0
-0.045937601 2.3687863 0.122 0
-0.025046026 1.5553181 0.122 0
-0.036628067 1.5258439 0.122 0
-0.030177703 1.4620965 0.122 0
0.0038368851 2.3661628 0.122 0
0.11269849 -2.3167133 0.122 0
0.051865608 2.3655152 0.122 0
0.16486666 -2.3320415 0.122 0
0.10257187 2.3532188 0.122 0
0.22119252 -2.3139396 0.122 0
0.14391476 2.3707716 0.122 0
0.27483302 -2.3144803 0.122 0
0.20340854 2.3791149 0.122 0
0.32672006 -2.3348062 0.122 0
0.25077802 2.368439 0.122 0
0.38132781 -2.3207569 0.122 0
0.29205704 2.3883548 0.122 0
0.43501821 -2.3134937 0.122 0
0.352817 2.3793607 0.122 0
0.48770955 -2.3301039 0.122 0
0.39579076 2.3915632 0.122 0
0.54101944 -2.3379927 0.122 0
0.44110414 2.3770642 0.122 0
0.59437537 -2.3171167 0.122 0
0.4996174 2.3713717 0.122 0
0.64729989 -2.3077319 0.122 0
0.55729413 2.3760874 0.122 0
0.6571818 -2.315861 0.122 0
0.6007098 2.3730302 0.122 0
0.71147203 -2.3399425 0.122 0
0.6439842 2.3704219 0.122 0
0.76353872 -2.3140352 0.122 0
0.70376337 2.3948064 0.122 0
0.81710982 -2.3166025 0.122 0
0.74693978 2.383337 0.122 0
0.86920512 -2.3017004 0.122 0
0.79174101 2.3872597 0.122 0
0.92385036 -2.3117368 0.122 0
0.8348307 2.3776996 0.122 0
0.86158657 2.3604648 0.122 0
0.92524117 -0.46084541 0.122 0
0.9556511 -0.48528641 0.122 0
0.93134314 -0.56268245 0.122 0
0.93418962 -0.66585922 0.122 0
0.93269253 -0.76605093 0.122 0
0.93653506 -0.90559453 0.122 0
0.93878603 -1.0611844 0.122 0
0.94227481 -1.2523737 0.122 0
0.97942632 -2.32444 0.122 0
0.89205641 2.3645668 0.122 0
0.98131382 -0.45786464 0.122 0
1.0323629 -2.3150761 0.122 0
0.94354999 2.3934236 0.122 0
1.0334262 -0.47147715 0.122 0
1.0854677 -2.3069801 0.122 0
1.0063088 2.3971891 0.122 0
1.0606998 -0.44994795 0.122 0
1.0536534 2.397285 0.122 0
1.0748682 2.3623643 0.122 0
1.0809621 2.1958814 0.122 0
1.0785511 2.037569 0.122 0
1.0855911 1.9891951 0.122 0
1.0848937 1.9264019 0.122 0
1.0847214 1.8697702 0.122 0
1.0847268 1.8177984 0.122 0
1.0869246 1.7514132 0.122 0
1.0864978 1.6860662 0.122 0
1.0861577 1.6460595 0.122 0
1.087576 1.5941974 0.122 0
1.0923942 1.5200005 0.122 0
1.0796854 2.2801409 0.122 0
1.085584 2.1288872 0.122 0
1.1008327 1.5648957 0.122 0
1.2019629 1.443256 0.122 0
1.237995 1.4581392 0.122 0
1.670324 0.52285314 0.122 0
1.76614 0.52708328 0.122 0
1.89546 -2.3003418 0.122 0
1.9474703 -2.2753515 0.122 0
1.8404622 2.0767868 0.122 0
1.845534 2.0353441 0.122 0
1.8583163 1.9805839 0.122 0
1.8788754 0.53219056 0.122 0
1.9096874 1.9639037 0.122 0
1.9333044 1.9421799 0.122 0
2.0210514 -2.2953446 0.122 0
1.976438 1.937219 0.122 0
2.0830526 -2.2883866 0.122 0
2.0419419 0.53483903 0.122 0
2.1425323 -2.2749898 0.122 0
2.2153773 -2.2848918 0.122 0
2.2747898 -2.2681296 0.122 0
2.248369 0.53845185 0.122 0
2.355284 -2.2858961 0.122 0
2.3210657 0.71485722 0.122 0
2.3234606 0.65354288 0.122 0
2.3217995 0.561378 0.122 0
2.3408384 -0.075933933 0.122 0
2.3375318 -0.11189264 0.122 0
2.3411081 -0.17112398 0.122 0
2.3464878 -0.23295015 0.122 0
2.3495581 -0.27506155 0.122 0
2.3415847 -0.31167138 0.122 0
2.3410277 -0.53048426 0.122 0
2.3449841 -0.62874663 0.122 0
2.3533165 -0.73625261 0.122 0
2.3453712 -0.78228694 0.122 0
2.357795 -0.84731203 0.122 0
2.3649473 -0.96825767 0.122 0
2.364279 -1.0278022 0.122 0
2.3613629 -1.0871201 0.122 0
2.3685136 -1.1590035 0.122 0
2.3648136 -1.2220625 0.122 0
2.3734055 -1.3012254 0.122 0
2.364481 -1.363497 0.122 0
2.3671262 -1.4419769 0.122 0
2.3658171 -1.5189927 0.122 0
2.3742669 -1.6120347 0.122 0
2.3722088 -1.6955853 0.122 0
2.3779473 -1.7939382 0.122 0
2.3758671 -1.886109 0.122 0
2.3874464 -2.0034857 0.122 0
2.378433 -2.0955009 0.122 0
2.3860223 -2.2192628 0.122 0
2.3026927 2.1676154 0.122 0
2.3123713 2.1247272 0.122 0
2.305558 2.0698643 0.122 0
2.3244298 2.0359876 0.122 0
2.3068178 1.9759402 0.122 0
2.3209891 1.9401622 0.122 0
2.2998819 1.8810658 0.122 0
2.3108323 1.8447957 0.122 0
2.3179097 1.7855875 0.122 0
2.3232267 1.7266703 0.122 0
2.3153362 1.6819813 0.122 0
2.3095236 1.639518 0.122 0
2.3162379 1.5853556 0.122 0
2.3154221 1.5286274 0.122 0
2.3156757 1.4738683 0.122 0
2.3160903 1.4203038 0.122 0
2.3190379 1.3862541 0.122 0
2.3231528 1.3358116 0.122 0
2.3284452 1.286267 0.122 0
2.3129406 1.2313194 0.122 0
2.3196485 1.1838106 0.122 0
2.3186138 1.1348453 0.122 0
2.3333879 1.0737911 0.122 0
2.3157661 1.0228639 0.122 0
2.3258452 0.97738516 0.122 0
2.3315408 0.93126279 0.122 0
2.3312068 0.88456166 0.122 0
2.3373375 0.82309848 0.122 0
2.3362789 0.77654582 0.122 0
2.3279324 0.74555045 0.122 0
2.325897 0.6841563 0.122 0
2.3465927 0.62154341 0.122 0
2.3303113 0.59156805 0.122 0
2.3552947 -0.045212626 0.122 0
2.3676345 -0.36941248 0.122 0
2.3757701 -0.41800421 0.122 0
2.3563957 -0.44991904 0.122 0
2.3636885 -0.50006145 0.122 0
2.3620646 -0.59293783 0.122 0
2.3695037 -0.69774795 0.122 0
2.3690569 -0.91375124 0.122 0
-2.3337784 2.338228 0.122 0
-2.1904819 2.3478594 0.122 0
-2.2689457 2.3543198 0.122 0
-2.0470471 2.3477573 0.122 0
-2.1210437 2.3527293 0.122 0
-1.915827 2.3591285 0.122 0
-1.9752386 2.3436277 0.122 0
-1.7798872 2.3529172 0.122 0
-1.8403665 2.3431509 0.122 0
-1.5962188 2.3678696 0.122 0
-1.7125884 2.3471262 0.122 0
-1.5292341 2.3554254 0.122 0
-1.6480447 2.344403 0.122 0
-1.4045663 2.3439999 0.122 0
-1.4583974 2.3298562 0.122 0
0.25645661 2.3736992 0.122 0
0.20472693 2.3855975 0.122 0
0.14871871 2.3686891 0.122 0
0.31284392 2.3857434 0.122 0
0.47606015 2.378437 0.122 0
0.42116296 2.3802724 0.122 0
0.36007988 2.3517632 0.122 0
0.6483649 2.3887415 0.122 0
0.59016597 2.3850651 0.122 0
0.52443385 2.3510747 0.122 0
0.8226074 2.3858371 0.122 0
0.757182 2.3676565 0.122 0
0.69953668 2.3687654 0.122 0
0.94105446 2.3807733 0.122 0
0.87928164 2.3776679 0.122 0
1.0646291 2.3802547 0.122 0
1.0035422 2.3832154 0.122 0
1.0885644 2.2966819 0.122 0
-0.94483107 1.4566153 0.122 0
-1.0020913 1.4475164 0.122 0
-0.85996044 1.4352399 0.122 0
-0.90037107 1.4406015 0.122 0
1.0970435 2.1869395 0.122 0
-0.72939622 1.4462881 0.122 0
-0.78566259 1.4439898 0.122 0
-0.81911188 1.4260157 0.122 0
-0.56404859 1.4563279 0.122 0
-0.61630225 1.4372652 0.122 0
-0.67301512 1.4446687 0.122 0
1.1003711 2.0744288 0.122 0
-0.41796905 1.4535366 0.122 0
-0.45370454 1.4475479 0.122 0
-0.5053637 1.4236956 0.122 0
1.9971666 2.386121 0.122 0
-0.30966055 1.4531729 0.122 0
-0.34557706 1.4490362 0.122 0
-0.38132477 1.4436038 0.122 0
2.0843253 2.3903787 0.122 0
-0.18366355 1.4492972 0.122 0
-0.23793828 1.436803 0.122 0
-0.2736448 1.4489977 0.122 0
1.0940063 1.9511626 0.122 0
-0.020445228 1.4501433 0.122 0
-0.074524879 1.4562622 0.122 0
-0.13016278 1.4407351 0.122 0
1.1044328 1.8658575 0.122 0
1.0985324 1.7573808 0.122 0
1.8612188 2.0121372 0.122 0
2.3237739 2.1582384 0.122 0
1.8943604 1.9597205 0.122 0
1.1082222 1.6810999 0.122 0
1.1079972 1.5930574 0.122 0
2.3194849 2.0587039 0.122 0
2.0261955 1.9297993 0.122 0
1.9360433 1.9180149 0.122 0
2.3251793 1.9727049 0.122 0
1.0993171 1.4968829 0.122 0
-1.1391666 0.58022583 0.122 0
1.1056107 1.4279765 0.122 0
-1.1417586 0.54100084 0.122 0
2.315238 1.874494 0.122 0
1.2146924 1.4310765 0.122 0
1.1649696 1.4373311 0.122 0
-1.1349955 0.47208521 0.122 0
-1.14328 0.42550045 0.122 0
2.3215218 1.7948282 0.122 0
-1.1327544 0.37741721 0.122 0
2.3286085 1.7181932 0.122 0
-1.1239316 0.31720927 0.122 0
-2.3494954 -0.20375419 0.122 0
-1.1335676 0.27981341 0.122 0
-1.1372657 0.2530472 0.122 0
-2.3775306 -0.23624539 0.122 0
2.3209088 1.6309489 0.122 0
-1.1286476 0.20088504 0.122 0
-2.3584118 -0.27698916 0.122 0
-2.3601198 -0.31391156 0.122 0
2.3497972 1.5769269 0.122 0
-1.1284319 0.14585064 0.122 0
-2.3217111 -0.35564011 0.122 0
-1.1379311 0.10253642 0.122 0
-2.355896 -0.40651846 0.122 0
2.3261011 1.4813385 0.122 0
-1.1295171 0.035166964 0.122 0
-2.3495445 -0.46183372 0.122 0
2.3277144 1.4087642 0.122 0
-1.136288 -0.0056744516 0.122 0
-2.3408849 -0.49861598 0.122 0
2.3263216 1.33583 0.122 0
-2.3494935 -0.55258656 0.122 0
-2.3416791 -0.60684001 0.122 0
2.3315201 1.2695544 0.122 0
-2.3284645 -0.64266539 0.122 0
-2.3410473 -0.67895937 0.122 0
2.3315885 1.201194 0.122 0
-2.3482955 -0.71545714 0.122 0
-2.3620622 -0.75273466 0.122 0
-2.3428433 -0.78768623 0.122 0
-2.3401294 -0.82381439 0.122 0
-2.3510458 -0.88001215 0.122 0
-2.3593946 -0.93687862 0.122 0
-2.3420458 -0.98979217 0.122 0
1.3987887 0.49171877 0.122 0
-2.3396978 -1.0455779 0.122 0
1.3985882 0.42970607 0.122 0
-2.3433061 -1.1033648 0.122 0
1.3975185 0.36920041 0.122 0
-2.3289945 -1.1570653 0.122 0
1.4734787 0.35269845 0.122 0
-2.3267152 -1.1950188 0.122 0
1.6655965 0.37092775 0.122 0
1.5685235 0.36304551 0.122 0
-2.3215251 -1.2323833 0.122 0
-2.3441787 -1.2790444 0.122 0
1.73348 0.3612811 0.122 0
-2.3486981 -1.3207738 0.122 0
1.9272571 0.36084527 0.122 0
1.8379937 0.36625731 0.122 0
-2.323456 -1.352303 0.122 0
2.0584288 0.36990845 0.122 0
-2.3297713 -1.4162083 0.122 0
2.1793041 0.37019616 0.122 0
-2.1982667 -1.4302151 0.122 0
-2.2847259 -1.4261333 0.122 0
2.3213367 0.37425375 0.122 0
-2.1093526 -1.430205 0.122 0
2.3464944 0.33159155 0.122 0
-1.9309855 -1.4204576 0.122 0
-2.009692 -1.4219899 0.122 0
2.3515685 0.28180736 0.122 0
-1.7916151 -1.4186246 0.122 0
-1.8614464 -1.4208437 0.122 0
2.3501475 0.23036504 0.122 0
-1.6744189 -1.4197168 0.122 0
-1.7435648 -1.4261005 0.122 0
2.347054 0.17904156 0.122 0
-1.5284326 -1.4251784 0.122 0
-1.5932169 -1.4352067 0.122 0
-1.6439769 -1.4342585 0.122 0
2.3419273 0.12779063 0.122 0
0.9156251 -0.48872903 0.122 0
-1.4968956 -1.4511509 0.122 0
2.3365116 0.077142239 0.122 0
0.92889541 -0.51938009 0.122 0
-1.4842409 -1.5226851 0.122 0
-1.500909 -1.502094 0.122 0
2.3468485 0.0067915916 0.122 0
0.94618648 -0.55044818 0.122 0
0.92172003 -0.58320308 0.122 0
-1.4919742 -1.5624996 0.122 0
2.339498 -0.067098856 0.122 0
0.92401332 -0.62527943 0.122 0
2.3338332 -0.11576927 0.122 0
0.93210357 -0.67859864 0.122 0
2.3414967 -0.16166294 0.122 0
0.92917955 -0.73154795 0.122 0
2.3478851 -0.20774591 0.122 0
0.92432243 -0.78467 0.122 0
-1.892136 -1.948354 0.122 0
2.3463128 -0.25487298 0.122 0
0.93106949 -0.82916552 0.122 0
0.92279053 -0.86041999 0.122 0
-1.856416 -1.9902843 0.122 0
2.35041 -0.30106729 0.122 0
0.92955172 -0.90652537 0.122 0
-1.8851373 -2.0660048 0.122 0
0.9345367 -0.95333159 0.122 0
0.9220109 -0.99570143 0.122 0
0.94934624 -1.0526606 0.122 0
0.92095381 -1.0783029 0.122 0
0.954171 -1.1164564 0.122 0
0.9306941 -1.1317447 0.122 0
-2.0948319 -2.3458233 0.122 0
0.9283787 -1.1688914 0.122 0
-0.411091 -1.7321566 0.122 0
-1.9464197 -2.3496482 0.122 0
-2.0216036 -2.3656569 0.122 0
0.93246996 -1.2099833 0.122 0
-1.7790343 -2.3489871 0.122 0
-1.8181853 -2.3324974 0.122 0
-1.8967229 -2.3579857 0.122 0
0.94356608 -1.2424579 0.122 0
0.93704104 -1.2802567 0.122 0
-1.6167758 -2.3361483 0.122 0
-1.6777709 -2.3511477 0.122 0
-1.7302634 -2.3531728 0.122 0
0.93452036 -1.3210893 0.122 0
-1.5550292 -2.3488073 0.122 0
0.94071782 -1.3537918 0.122 0
0.93464637 -1.3796145 0.122 0
-0.40805396 -1.9039372 0.122 0
-1.3466742 -2.334476 0.122 0
-1.4043233 -2.3585711 0.122 0
-1.4364469 -2.341115 0.122 0
-1.4963325 -2.3635821 0.122 0
0.93739676 -1.4271063 0.122 0
-1.2232369 -2.33073 0.122 0
-1.2938101 -2.3495262 0.122 0
-1.1128708 -2.3390515 0.122 0
-1.1701835 -2.3403482 0.122 0
-0.96680164 -2.3353326 0.122 0
-1.0172653 -2.3291984 0.122 0
-1.0778829 -2.3434286 0.122 0
-0.40611273 -2.1635764 0.122 0
-0.86471176 -2.3379693 0.122 0
-0.89431208 -2.3258054 0.122 0
-0.9380486 -2.351306 0.122 0
-0.38846624 -2.3179445 0.122 0
-0.26849526 -2.3272972 0.122 0
-0.31383646 -2.3352778 0.122 0
-0.35933506 -2.3376837 0.122 0
-0.11909997 -2.3102927 0.122 0
-0.14844394 -2.3191578 0.122 0
-0.20806438 -2.3315861 0.122 0
-0.238249 -2.3327601 0.122 0
0.0042931437 -2.3229105 0.122 0
-0.040939659 -2.3288438 0.122 0
-0.087441146 -2.3239157 0.122 0
-0.17655033 -2.3526843 0.122 0
0.15953037 -2.316258 0.122 0
0.096341938 -2.3164961 0.122 0
0.0510934 -2.3239737 0.122 0
0.21016014 -2.3248558 0.122 0
0.13146955 -2.3317184 0.122 0
0.41677958 -2.2939241 0.122 0
0.35423219 -2.3089893 0.122 0
0.32445002 -2.3201079 0.122 0
0.27715746 -2.3288786 0.122 0
0.53334677 -2.3159533 0.122 0
0.47019333 -2.3367922 0.122 0
0.39623317 -2.3289731 0.122 0
0.64200938 -2.3079948 0.122 0
0.59168422 -2.3208175 0.122 0
0.50861764 -2.3415813 0.122 0
0.76912498 -2.321182 0.122 0
0.70965314 -2.323585 0.122 0
0.88747597 -2.3072228 0.122 0
0.85717547 -2.3268337 0.122 0
0.82053375 -2.3364573 0.122 0
1.0344701 -2.3210466 0.122 0
0.98636121 -2.319561 0.122 0
0.94212663 -2.3217151 0.122 0
1.2246633 -2.3080401 0.122 0
1.1857158 -2.3236251 0.122 0
1.126745 -2.3141713 0.122 0
1.0813782 -2.3193099 0.122 0
1.2841043 -2.3140912 0.122 0
1.4645656 -2.3210845 0.122 0
1.4038565 -2.3203647 0.122 0
1.3482835 -2.3228681 0.122 0
1.5910912 -2.3209345 0.122 0
1.511869 -2.306973 0.122 0
1.7157327 -2.3106041 0.122 0
1.6520216 -2.3155501 0.122 0
1.8692095 -2.3153234 0.122 0
1.7865523 -2.309464 0.122 0
2.0205443 -2.3077514 0.122 0
1.9360676 -2.3060555 0.122 0
2.1136479 -2.3126338 0.122 0
2.3202717 1.211951 0.122 0
2.3399937 1.1330582 0.122 0
2.3315551 1.0425625 0.122 0
2.3391294 0.96030033 0.122 0
2.3441989 0.87797105 0.122 0
2.3404853 0.31434178 0.122 0
2.1990294 0.35330522 0.122 0
2.3382773 0.23675847 0.122 0
-0.7732392 2.3533607 0.122 0
-0.83254844 2.355495 0.122 0
2.3371055 0.1601187 0.122 0
-0.89726406 2.3374705 0.122 0
2.3435574 0.085630894 0.122 0
1.9198674 0.3473078 0.122 0
-0.95999253 2.3219328 0.122 0
2.3326449 0.0082751513 0.122 0
-1.0154295 2.3301003 0.122 0
-1.0693363 2.3437297 0.122 0
-1.1215019 2.3653016 0.122 0
2.3402519 -0.065168977 0.122 0
1.6904746 0.34696877 0.122 0
-1.1851594 2.3322082 0.122 0
-1.2438806 2.3170469 0.122 0
2.341208 -0.13943028 0.122 0
-1.2983485 2.3218312 0.122 0
-1.3503147 2.3423123 0.122 0
2.3376396 -0.21392679 0.122 0
1.4937356 0.34938073 0.122 0
1.3984492 0.44400513 0.122 0
-1.4075198 2.326432 0.122 0
2.3450613 -0.28674912 0.122 0
1.3838258 0.37537789 0.122 0
-1.4622002 2.3255064 0.122 0
-1.5171872 2.3188059 0.122 0
-1.5693413 2.342732 0.122 0
-1.6249495 2.3215568 0.122 0
-1.6779389 2.3406527 0.122 0
-1.7321576 2.3352001 0.122 0
-1.7860012 2.3452809 0.122 0
-1.8399534 2.3295095 0.122 0
-1.8937465 2.3280396 0.122 0
-1.9474291 2.3240914 0.122 0
-2.0025158 2.3439293 0.122 0
-2.0554132 2.3257406 0.122 0
-2.108326 2.3127909 0.122 0
-2.1910934 2.324944 0.122 0
-1.024842 1.4734491 0.122 0
-2.2718861 2.3162766 0.122 0
-2.3285451 2.3265479 0.122 0
-1.0004312 1.4211513 0.122 0
-2.3809509 2.3101993 0.122 0
-2.3811686 2.0391607 0.122 0
-2.3812261 1.8102109 0.122 0
0.92081571 -0.5408082 0.122 0
0.91939074 -0.4927808 0.122 0
0.92342556 -0.58869052 0.122 0
0.9298901 -0.63641202 0.122 0
-2.3753076 1.5898418 0.122 0
0.93244201 -0.73241556 0.122 0
0.92517889 -0.68454659 0.122 0
0.93643153 -0.78048956 0.122 0
0.92156148 -0.82816255 0.122 0
-2.3720493 1.4097869 0.122 0
0.95066714 -0.87744379 0.122 0
-1.285488 0.58888459 0.122 0
2.3681266 -1.9248753 0.122 0
0.92625141 -0.97253215 0.122 0
0.91937685 -0.92391062 0.122 0
2.3734384 -2.0058167 0.122 0
0.93451428 -1.0216739 0.122 0
-1.2909818 0.51014459 0.122 0
-2.3705049 1.2587628 0.122 0
0.9246769 -1.0691464 0.122 0
-1.2854781 0.40762413 0.122 0
-1.2854669 0.46321446 0.122 0
2.3603613 -2.0819178 0.122 0
0.93520725 -1.1192303 0.122 0
-2.3721299 1.1363409 0.122 0
2.3696117 -2.1659923 0.122 0
0.93438101 -1.1928079 0.122 0
-1.2862191 0.30684385 0.122 0
-1.2909151 0.34478739 0.122 0
-2.372684 1.0240982 0.122 0
2.3598001 -2.2445536 0.122 0
0.9268918 -1.2657082 0.122 0
-1.2898501 0.25535175 0.122 0
0.92043519 -1.3141837 0.122 0
-1.2847788 0.18470861 0.122 0
-2.3738573 0.92545283 0.122 0
2.358968 -2.3271642 0.122 0
0.9271636 -1.3657641 0.122 0
-1.2682202 0.13958873 0.122 0
0.95100904 -1.4221731 0.122 0
-2.3694463 0.82082009 0.122 0
2.1456003 -2.3260546 0.122 0
0.92866611 -1.4677577 0.122 0
-2.365628 0.72774267 0.122 0
1.9452939 -2.3228889 0.122 0
-2.3634174 0.6471625 0.122 0
-2.366519 0.58628196 0.122 0
1.7666259 -2.322139 0.122 0
-2.3641181 0.51759893 0.122 0
-2.3709426 0.47448379 0.122 0
1.6061423 -2.3234632 0.122 0
-2.36095 0.39915746 0.122 0
-2.3585758 0.32152534 0.122 0
1.4807053 -2.3360596 0.122 0
-2.3626499 0.26294214 0.122 0
1.3345044 -2.3339729 0.122 0
-2.3539577 0.18791088 0.122 0
1.195361 -2.3304031 0.122 0
-0.42782784 -1.5071387 0.122 0
-0.48196852 -1.5080107 0.122 0
-0.55476689 -1.5107698 0.122 0
-0.55999589 -1.5690563 0.122 0
-0.56918645 -1.6268246 0.122 0
-0.55906761 -1.7014716 0.122 0
-0.5804224 -1.7372835 0.122 0
-0.56163156 -1.8265517 0.122 0
-0.55762815 -1.7922627 0.122 0
-0.54655409 -1.8788074 0.122 0
-0.56674361 -1.9417621 0.122 0
-0.57064843 -1.8969885 0.122 0
-0.5587424 -1.9922705 0.122 0
-0.5474813 -2.048203 0.122 0
-0.55591953 -2.1095223 0.122 0
-0.55658162 -2.1823878 0.122 0
-0.56206942 -2.2276039 0.122 0
-0.55052161 -2.2954354 0.122 0
-0.57336771 -2.3516097 0.122 0
-0.65790343 -2.3552999 0.122 0
-0.73478329 -2.3649211 0.122 0
-0.8242414 -2.3493605 0.122 0
-0.86516416 -2.3774571 0.122 0
-0.9029355 -2.3774714 0.122 0
-0.95446408 -2.350421 0.122 0
-0.98782432 -2.3550966 0.122 0
-1.0219468 -2.3573415 0.122 0
-1.0564381 -2.357729 0.122 0
2.362627 -0.0035336614 0.122 0
2.3536115 0.073768556 0.122 0
2.37185 0.14641601 0.122 0
2.3425465 0.22530258 0.122 0
2.3736498 0.59360713 0.122 0
2.3542111 0.66796076 0.122 0
2.3493912 0.74154806 0.122 0
2.3538468 0.88870311 0.122 0
2.3401382 0.8148936 0.122 0
2.3514161 0.96226752 0.122 0
2.3442991 1.0355587 0.122 0
2.3441982 1.1093729 0.122 0
2.3334212 1.1823051 0.122 0
2.3395553 1.257163 0.122 0
2.3289919 1.3302412 0.122 0
2.348918 1.4080696 0.122 0
2.3292766 1.4801278 0.122 0
2.3456972 1.5588748 0.122 0
2.3565071 1.6375484 0.122 0
2.1774571 0.53031659 0.122 0
1.4052432 0.4006592 0.122 0
1.4104505 0.45771351 0.122 0
1.4231259 0.51422882 0.122 0
1.1742073 1.4440728 0.122 0
1.1137538 1.5403275 0.122 0
1.1162381 1.5968368 0.122 0
1.1323768 1.6581489 0.122 0
1.1158932 1.7101443 0.122 0
1.1124525 1.766618 0.122 0
1.121611 1.8282149 0.122 0
1.108633 1.483776 0.122 0
-0.012093873 1.4542403 0.122 0
-0.11015668 1.4519117 0.122 0
-0.20845036 1.4459969 0.122 0
-0.22025034 2.3805342 0.122 0
-0.28565985 1.4458804 0.122 0
-0.33441308 1.4562607 0.122 0
-0.28181386 2.3748651 0.122 0
-0.33310333 2.3777995 0.122 0
-0.41207761 1.4510385 0.122 0
-0.38927895 2.373596 0.122 0
-0.53764719 -2.2388442 0.122 0
-0.44075486 2.372623 0.122 0
-0.56224042 -2.3280618 0.122 0
-0.54107714 -2.0947502 0.122 0
-0.54233253 -1.9658396 0.122 0
-0.53616714 -1.8607494 0.122 0
-0.50008839 1.4377314 0.122 0
-0.53403896 1.4497352 0.122 0
-0.48582003 2.3774056 0.122 0
-0.62842017 -2.3197105 0.122 0
-0.53288054 2.3783197 0.122 0
-0.689475 -2.3217273 0.122 0
-0.59617031 1.4451888 0.122 0
-0.60464823 2.3749156 0.122 0
-0.6535629 1.441087 0.122 0
-0.67254317 1.4578936 0.122 0
-0.66963428 2.376987 0.122 0
-0.74620324 -2.3337803 0.122 0
-0.73574144 1.446823 0.122 0
-0.71187878 2.3779464 0.122 0
-0.80472958 -2.3396735 0.122 0
-0.77675766 1.4476438 0.122 0
-0.76928139 2.3549738 0.122 0
-0.86750364 -2.3307388 0.122 0
-0.81463397 1.4491453 0.122 0
-0.79038912 2.3845911 0.122 0
-0.92330438 -2.341691 0.122 0
-0.86368757 1.4415314 0.122 0
-0.85636842 2.3744559 0.122 0
-0.98347783 -2.3363652 0.122 0
-0.9133085 1.4440405 0.122 0
-0.91426027 2.3743339 0.122 0
-0.95910662 1.4472506 0.122 0
-0.95417142 2.3699391 0.122 0
-1.041877 -2.3348539 0.122 0
-0.99481022 1.4438334 0.122 0
-1.0150172 1.4773691 0.122 0
-1.0016961 1.542625 0.122 0
-0.99907148 1.5733657 0.122 0
-1.0049964 2.3771949 0.122 0
-1.0989801 -2.3362579 0.122 0
-1.0697538 2.3543468 0.122 0
-1.1554886 -2.338366 0.122 0
-1.0965559 2.3706751 0.122 0
-1.2116185 -2.3405166 0.122 0
-1.1412283 2.3471394 0.122 0
-1.1682767 2.3616021 0.122 0
-1.2671245 -2.3442266 0.122 0
-1.2623799 -0.36886358 0.122 0
-1.2618181 -0.32382226 0.122 0
-1.2583477 -0.26599491 0.122 0
-1.2514894 -0.18133771 0.122 0
-1.2569765 -0.074122488 0.122 0
-1.2007278 2.362937 0.122 0
-1.265622 -0.19536752 0.122 0
-1.2668065 -0.12347269 0.122 0
-1.2669643 -0.090945482 0.122 0
-1.2682797 -0.029237568 0.122 0
-1.2400628 2.3452539 0.122 0
-1.2644826 2.3654687 0.122 0
-1.3123591 2.3641245 0.122 0
-1.3630883 2.3509634 0.122 0
-1.4043428 2.366107 0.122 0
-1.5017401 -1.4104369 0.122 0
-1.4471756 2.3763027 0.122 0
-1.5597222 -1.4105906 0.122 0
-1.4966172 2.356108 0.122 0
-1.5948592 -1.438669 0.122 0
-1.5731368 2.3357444 0.122 0
-1.5393221 2.3623862 0.122 0
-1.6549276 -1.4165123 0.122 0
-1.6127915 2.3558478 0.122 0
-1.7125459 -1.4109399 0.122 0
-1.6573396 2.3422322 0.122 0
-1.7504427 -1.4119799 0.122 0
-1.6838353 2.3584239 0.122 0
-1.7111888 2.3701239 0.122 0
-1.8071117 -1.4238365 0.122 0
-1.7545804 2.3583519 0.122 0
-1.8640147 -1.4051886 0.122 0
-1.7969985 2.3541031 0.122 0
-1.8248079 2.3689895 0.122 0
-1.9019213 -1.4124169 0.122 0
-1.8441942 2.3498755 0.122 0
-1.9593626 -1.4228191 0.122 0
-1.9001675 2.3477211 0.122 0
-2.0157778 -1.4122416 0.122 0
-1.9558623 2.3456616 0.122 0
-2.055882 -1.4333652 0.122 0
-2.0137331 2.3618486 0.122 0
-2.0915372 -1.4067161 0.122 0
-2.0546224 2.3470378 0.122 0
-2.1503353 -1.416204 0.122 0
-2.0982397 2.3518825 0.122 0
-2.2108555 -1.4301828 0.122 0
-2.1527348 2.3365009 0.122 0
-2.2464323 -1.4097174 0.122 0
-2.2137799 2.3500619 0.122 0
-2.3050926 -1.4084591 0.122 0
-2.3263459 -1.2475493 0.122 0
-2.3246288 -1.0960565 0.122 0
-2.25687 2.3451543 0.122 0
-2.3288047 -0.98541278 0.122 0
-2.3319707 -0.88443226 0.122 0
-2.3263674 -0.76667631 0.122 0
-2.3332636 -0.69918698 0.122 0
-2.3330538 -0.61802369 0.122 0
-2.3368578 -0.55535597 0.122 0
-2.3394089 -0.49499738 0.122 0
-2.3367603 -0.39881396 0.122 0
-2.3325515 -0.30986005 0.122 0
-2.3292656 -0.25540793 0.122 0
-2.3343561 -0.22181094 0.122 0
-2.3318877 -0.15651327 0.122 0
-2.3364727 -0.09232837 0.122 0
-2.3034008 2.3510308 0.122 0
-2.35619 1.7090051 0.122 0
-2.3660071 1.7927704 0.122 0
-2.3612638 1.8302689 0.122 0
-2.361618 1.881763 0.122 0
-2.3642817 1.9427822 0.122 0
-2.3625977 1.9984643 0.122 0
-2.3670509 2.0747888 0.122 0
-2.3646901 2.1400247 0.122 0
-2.3683989 2.2289901 0.122 0
-2.3654463 2.3072979 0.122 0
-2.3500121 2.3541522 0.122 0
-1.7974293 -2.3269515 0.12200003 0
-1.7315843 -2.3300807 0.12200004 0
-1.6703299 -2.3430011 0.12200004 0
-1.6058791 -2.3461547 0.12200004 0
-1.5408199 -2.3454967 0.12200005 0
-1.4813741 -2.3595846 0.12200005 0
-1.4088922 -2.3305879 0.12200005 0
-1.3465599 -2.3306606 0.12200004 0
-1.2830507 -2.3240452 0.12200005 0
-1.2233881 -2.3295002 0.12200005 0
-1.1672727 -2.348835 0.12200005 0
-1.0988071 -2.311336 0.12200005 0
-1.0399544 -2.3137767 0.12200005 0
-0.98045838 -2.3108041 0.12200005 0
-0.92347789 -2.3206789 0.12200005 0
-0.81075597 -2.3514416 0.12200006 0
-0.86542213 -2.3231401 0.12200005 0
-0.75095385 -2.3382742 0.12200006 0
-0.69225276 -2.3298802 0.12200006 0
-0.63403893 -2.3216777 0.12200005 0
-0.34797817 -2.3227615 0.12200007 0
-0.2913025 -2.30791 0.12200007 0
-0.2339837 -2.3140335 0.12200007 0
-0.17695051 -2.3114858 0.12200007 0
-0.12151676 -2.2900486 0.12200008 0
-0.060934484 -2.3231895 0.12200008 0
-0.0042868257 -2.3129823 0.12200008 0
0.051821947 -2.2997525 0.12200007 0
0.11195481 -2.3131127 0.12200008 0
0.16907752 -2.3048534 0.12200008 0
0.23213744 -2.3267968 0.12200008 0
0.28887594 -2.3133714 0.12200008 0
0.34776914 -2.30948 0.12200008 0
0.40244138 -2.2873044 0.12200008 0
0.46659541 -2.3015995 0.12200008 0
0.52966702 -2.3082664 0.12200008 0
0.59216475 -2.3102124 0.12200009 0
0.64974546 -2.294764 0.12200009 0
0.71172929 -2.2917519 0.12200008 0
0.7794559 -2.3027229 0.12200008 0
0.84173572 -2.2962589 0.12200009 0
0.90116405 -2.2812264 0.12200009 0
0.97308075 -2.2948215 0.12200009 0
1.0351741 -2.2828975 0.12200009 0
1.1003081 -2.2762918 0.1220001 0
1.182534 -2.3029509 0.1220001 0
1.2455944 -2.2874405 0.1220001 0
1.3293608 -2.3096964 0.12200011 0
1.3869269 -2.2805214 0.1220001 0
-1.664752 -1.4185266 0.12199998 0
-1.4767962 -1.4568554 0.12199999 0
-1.6134727 -1.4211389 0.12199998 0
-1.5607357 -1.4191003 0.12199999 0
-1.5075564 -1.4140519 0.12199999 0
-0.51053143 -1.4711714 0.12200001 0
-0.44703361 -1.4679112 0.12200001 0
-0.40483436 -1.4730817 0.12200002 0
0.95050305 -1.397217 0.12200004 0
2.3766701 -1.6408565 0.12200009 0
0.94444221 -1.2954135 0.12200003 0
2.3770301 -1.5519377 0.12200008 0
0.94496983 -1.210088 0.12200002 0
2.3854139 -1.4727085 0.12200008 0
0.92912728 -1.1042279 0.12200002 0
2.3588839 -1.3663573 0.12200007 0
0.94906843 -1.0573878 0.12200002 0
2.3693352 -1.293833 0.12200006 0
0.93690264 -0.96647841 0.12200002 0
2.369287 -1.2147934 0.12200006 0
0.9326092 -0.89121801 0.12200001 0
2.3704016 -1.1387522 0.12200005 0
0.924007 -0.81393099 0.12200001 0
2.3641582 -1.0593188 0.12200005 0
-1.1279788 -0.35722393 0.12199993 0
0.92480505 -0.75244039 0.122 0
0.9293865 -0.69827044 0.122 0
2.371912 -0.9918505 0.12200005 0
-1.1295561 -0.25895786 0.12199993 0
-1.1168383 -0.28603286 0.12199993 0
0.93007249 -0.64159846 0.12199999 0
2.3488119 -0.90501338 0.12200004 0
-1.1291404 -0.21203488 0.12199993 0
0.9237805 -0.57920569 0.12199999 0
-1.1387239 -0.18301456 0.12199992 0
0.92436326 -0.52709901 0.12199999 0
2.3591394 -0.84261024 0.12200004 0
-1.1363518 -0.13752519 0.12199992 0
0.9311282 -0.48356542 0.12199999 0
2.361594 -0.77634746 0.12200003 0
-1.1262553 -0.06471736 0.12199991 0
0.93034327 -0.43360212 0.12199999 0
0.98841071 -0.44412285 0.12199999 0
2.3576643 -0.70760804 0.12200003 0
-2.3634288 0.23804489 0.12199987 0
-1.1356099 -0.022951901 0.12199991 0
1.037725 -0.44385761 0.12199999 0
-2.3728218 0.27333471 0.12199987 0
-1.1276822 0.037744731 0.1219999 0
2.3468716 -0.63648468 0.12200003 0
-2.3542147 0.31753111 0.12199987 0
-1.1267285 0.10137212 0.1219999 0
2.3655708 -0.58341891 0.12200002 0
-2.3892193 0.38208932 0.12199987 0
-2.3637056 0.35209548 0.12199987 0
-1.140815 0.14333832 0.1219999 0
2.3341434 -0.50420231 0.12200002 0
-2.3666902 0.42537716 0.12199986 0
-1.145833 0.20559618 0.1219999 0
-1.1375599 0.18782248 0.1219999 0
2.3344569 -0.44361496 0.12200002 0
-2.3707683 0.46094304 0.12199986 0
-1.1395811 0.24923816 0.1219999 0
2.3460326 -0.38954407 0.12200002 0
-2.3696804 0.51560462 0.12199986 0
-1.1482887 0.27714044 0.1219999 0
-2.3731902 0.56863427 0.12199985 0
2.3444009 -0.32985866 0.12200001 0
-2.3652802 0.62325132 0.12199985 0
2.3379848 -0.26907319 0.122 0
-2.3747842 0.67455381 0.12199984 0
2.345449 -0.21529818 0.122 0
-2.3767815 0.7268132 0.12199984 0
2.3581448 -0.16415125 0.12199999 0
-2.3771298 0.77906466 0.12199984 0
2.3441463 -0.10310256 0.12199999 0
-2.399364 0.84732616 0.12199983 0
-2.363941 0.81464797 0.12199984 0
-1.2900577 0.60728741 0.12199987 0
2.3602257 -0.054213911 0.12199999 0
-2.3785012 0.88293582 0.12199983 0
2.3323362 0.0096382499 0.12199999 0
-2.3789983 0.95203823 0.12199983 0
-2.3724253 0.91757667 0.12199983 0
2.3395333 0.06045872 0.12199999 0
-2.3726473 0.98645759 0.12199982 0
-2.3694861 1.0381166 0.12199982 0
-2.3693557 1.0897868 0.12199982 0
1.3930671 0.39986834 0.12199994 0
-2.3811636 1.1429354 0.12199982 0
1.3941044 0.43371731 0.12199994 0
-2.3908641 1.1967266 0.12199982 0
1.3778536 0.48836967 0.12199994 0
-2.3872046 1.2315964 0.12199982 0
1.3603518 0.54197723 0.12199993 0
-2.3907006 1.285498 0.12199981 0
1.5106364 0.5602079 0.12199993 0
-2.3855386 1.3384404 0.12199981 0
1.7021027 0.54793489 0.12199994 0
1.9084941 0.55084598 0.12199995 0
-2.3932226 1.4128554 0.1219998 0
-2.3904498 1.3756715 0.12199981 0
2.1354756 0.55780625 0.12199995 0
-2.3799195 1.4463594 0.1219998 0
2.3215582 0.57814461 0.12199996 0
-2.3827775 1.484104 0.1219998 0
2.3422379 0.62416351 0.12199996 0
-2.392308 1.543238 0.12199979 0
2.3382959 0.67315161 0.12199995 0
-2.3937438 1.6010237 0.12199979 0
2.3318481 0.72203636 0.12199995 0
-2.38908 1.6382203 0.12199979 0
2.3250582 0.77057886 0.12199995 0
-2.3928354 1.6987582 0.12199979 0
2.3524578 0.81719983 0.12199994 0
-2.3694983 1.7494025 0.12199979 0
2.3235462 0.86631322 0.12199993 0
-2.3950577 1.8008441 0.12199978 0
2.3057816 0.9142428 0.12199993 0
-2.4066296 1.8476576 0.12199977 0
2.3118172 0.96168506 0.12199993 0
-2.4005067 1.8872662 0.12199977 0
-2.392329 1.926304 0.12199977 0
2.3202944 1.0094073 0.12199993 0
-2.4044476 1.9762036 0.12199976 0
2.3162742 1.0569488 0.12199993 0
-2.4012659 2.0192051 0.12199976 0
2.3294756 1.1054337 0.12199992 0
-2.3861642 2.0562248 0.12199976 0
2.3243198 1.1530763 0.12199992 0
-2.4037352 2.1125326 0.12199976 0
1.087685 1.4698838 0.12199987 0
1.1583513 1.4642458 0.12199987 0
2.3263843 1.2013457 0.12199992 0
-2.400223 2.1578076 0.12199976 0
1.0825019 1.4974735 0.12199987 0
2.3129716 1.2963374 0.12199991 0
2.3132126 1.2481428 0.12199991 0
-2.404839 2.2090697 0.12199976 0
1.0843303 1.5430838 0.12199987 0
2.3096764 1.344292 0.12199991 0
-2.4136667 2.2644083 0.12199975 0
1.0785934 1.6018513 0.12199987 0
2.3064449 1.3923899 0.1219999 0
-2.4153955 2.3165028 0.12199975 0
1.0680925 1.6758686 0.12199986 0
1.084605 1.6518803 0.12199987 0
2.2977428 1.4396501 0.1219999 0
-2.3699782 2.3365302 0.12199975 0
-2.3107374 2.3452935 0.12199975 0
-2.2333717 2.3383732 0.12199976 0
1.0852301 1.7171592 0.12199986 0
2.3089969 1.4909302 0.1219999 0
1.0763854 1.7457447 0.12199985 0
2.3059921 1.5398347 0.1219999 0
1.0878417 1.8207703 0.12199985 0
1.0922071 1.788482 0.12199985 0
2.3168046 1.5923022 0.1219999 0
1.0673907 1.861546 0.12199985 0
2.3174274 1.6429722 0.12199989 0
1.0792288 1.9238499 0.12199984 0
2.323503 1.6956239 0.12199989 0
1.0765339 1.959704 0.12199984 0
2.313458 1.7442532 0.12199989 0
1.0737586 2.0160122 0.12199984 0
2.2920067 1.7894571 0.12199988 0
1.0732533 2.0758145 0.12199984 0
1.0592699 2.1062744 0.12199984 0
1.0851244 2.1698849 0.12199983 0
1.0637783 2.241044 0.12199983 0
1.07515 2.2057164 0.12199983 0
1.0675032 2.2908926 0.12199983 0
0.64545417 2.4150009 0.12199981 0
0.67706513 2.4045854 0.12199981 0
0.71750796 2.4050741 0.12199981 0
0.77349198 2.3972428 0.12199982 0
1.0724139 2.3436193 0.12199982 0
0.83767402 2.3969822 0.12199982 0
0.89354533 2.409656 0.12199982 0
0.94355994 2.4135361 0.12199982 0
0.98732042 2.4089699 0.12199982 0
1.0681531 2.3892968 0.12199982 0
1.0402236 2.4123585 0.12199982 0
2.170994 -2.311455 0.12200001 0
2.2304604 -2.3079321 0.12200001 0
2.2933273 -2.3117626 0.12200001 0
1.9374475 -2.321749 0.12200001 0
1.9939818 -2.3152859 0.12200001 0
2.0524728 -2.3142519 0.12200001 0
2.1075263 -2.3006122 0.12200001 0
2.3343587 -2.2582397 0.12200001 0
1.7630923 -2.3104265 0.12200001 0
1.8195373 -2.3094282 0.12200001 0
1.8746679 -2.3013358 0.12200001 0
1.5416068 -2.321548 0.12200001 0
1.5948238 -2.3067887 0.12200001 0
1.6502712 -2.3065071 0.12200001 0
1.7075893 -2.3144581 0.12200001 0
1.2680818 -2.3343678 0.12200001 0
1.3216666 -2.3162844 0.12200001 0
1.3749902 -2.301311 0.12200001 0
1.4298282 -2.3054121 0.12200001 0
1.4860528 -2.318543 0.12200001 0
2.3298688 -2.0989666 0.12200001 0
1.1043265 -2.3250818 0.12200001 0
1.1589403 -2.3433867 0.12200001 0
1.2126815 -2.3081086 0.12200001 0
1.050019 -2.3202779 0.12200001 0
2.3356116 -1.9759611 0.12200001 0
0.49943233 -2.3157959 0.12200001 0
0.55289865 -2.3310075 0.12200001 0
2.3407965 -1.8609817 0.12200001 0
0.20314121 -2.3438113 0.12200001 0
0.26492143 -2.3343673 0.12200001 0
0.32517588 -2.3272779 0.12200001 0
0.38119876 -2.3346584 0.12200001 0
0.44183683 -2.3200886 0.12200001 0
-0.042264462 -2.3494191 0.12200001 0
0.087670207 -2.3294721 0.12200001 0
0.15068555 -2.3204064 0.12200001 0
-0.22832096 -2.3375733 0.12200001 0
-0.15987229 -2.3277378 0.12200001 0
-0.098989129 -2.3338215 0.12200001 0
0.032108665 -2.3143797 0.12200001 0
2.3409803 -1.7438632 0.12200001 0
-0.42676651 -2.3357902 0.12200001 0
-0.35404706 -2.3248024 0.12200001 0
-0.29444623 -2.3392267 0.12200001 0
2.3350544 -1.6228069 0.12200001 0
-0.44342983 -2.2355494 0.122 0
2.3328209 -1.5171242 0.122 0
-1.4489177 -2.3413315 0.12199999 0
-1.3472356 -2.3271749 0.12199999 0
-1.2678828 -2.3378968 0.12199999 0
-0.43592501 -2.0966377 0.122 0
2.3256521 -1.4093196 0.122 0
-1.6440215 -2.3482554 0.12199999 0
-1.5343034 -2.332304 0.12199999 0
-1.8329041 -2.3349507 0.12199999 0
-1.7376018 -2.3421872 0.12199999 0
-0.44380379 -1.9939451 0.122 0
-2.0625722 -2.3499689 0.12199999 0
-1.9494328 -2.3463292 0.12199999 0
